ply
format ascii 1.0
comment https://github.com/mikedh/trimesh
obj_info Generated by CloudCompare!
element vertex 1152
property float x
property float y
property float z
property uchar red
property uchar green
property uchar blue
end_header
0.346031 -0.566465 0.472835 157 158 160 
0.392015 -0.539498 0.405722 131 132 130 
0.392746 -0.529903 0.385225 129 129 127 
-0.492704 -0.375090 0.215910 176 176 174 
-0.487582 -0.431436 0.337662 152 153 148 
-0.469798 -0.586828 0.669961 146 146 144 
-0.455861 -0.587362 0.668799 149 149 147 
-0.442805 -0.587390 0.667219 151 151 149 
-0.427757 -0.586690 0.664353 156 160 159 
-0.405289 -0.585627 0.659278 170 172 171 
-0.390475 -0.585527 0.655997 174 174 174 
-0.375782 -0.585367 0.652435 177 177 177 
-0.361001 -0.585149 0.648574 177 177 177 
-0.346300 -0.584810 0.644368 179 179 177 
-0.331222 -0.584574 0.640722 179 179 177 
-0.316368 -0.584027 0.636539 176 176 176 
-0.301370 -0.582937 0.631120 179 179 179 
-0.275322 -0.581466 0.622531 186 186 188 
-0.235930 -0.580641 0.612846 183 184 186 
-0.221962 -0.580533 0.610205 178 179 183 
-0.193284 -0.581675 0.606553 167 167 169 
-0.178880 -0.581391 0.604275 163 163 163 
-0.161464 -0.581028 0.600234 159 159 159 
-0.146844 -0.580665 0.596810 155 155 155 
-0.132134 -0.580239 0.593087 152 152 152 
-0.117664 -0.579158 0.588933 148 150 149 
-0.103181 -0.579070 0.586243 150 152 151 
-0.089014 -0.578407 0.582343 157 160 164 
-0.074554 -0.577740 0.578679 162 163 165 
-0.057985 -0.577684 0.574739 159 163 165 
-0.017717 -0.577467 0.566697 146 147 147 
0.010275 -0.577019 0.561584 137 137 135 
0.066875 -0.576126 0.547618 144 145 144 
0.080274 -0.575734 0.543299 150 150 150 
0.093537 -0.575194 0.539177 155 155 155 
0.106955 -0.574666 0.534667 154 156 155 
0.120801 -0.573831 0.531402 159 161 160 
0.146841 -0.573476 0.526522 160 162 161 
0.161071 -0.573412 0.524449 162 162 164 
0.358392 -0.568947 0.480130 154 155 157 
0.372713 -0.568173 0.475551 146 148 147 
0.384934 -0.566505 0.470644 137 139 138 
0.393770 -0.508954 0.343704 130 131 126 
0.394261 -0.492890 0.309398 133 133 131 
0.394698 -0.481258 0.284654 136 137 132 
0.396108 -0.460824 0.241733 146 147 142 
0.397517 -0.444298 0.206213 153 153 150 
-0.488063 -0.417761 0.312651 159 160 155 
-0.486547 -0.436801 0.353544 152 153 148 
-0.485718 -0.455381 0.392658 146 147 142 
-0.485168 -0.475551 0.436528 144 145 139 
-0.484309 -0.493875 0.476850 142 144 139 
-0.483936 -0.510280 0.513523 139 140 134 
-0.483905 -0.520758 0.536618 139 140 132 
-0.464421 -0.590217 0.681656 150 151 146 
-0.447934 -0.590517 0.679766 153 153 151 
-0.432579 -0.589788 0.677290 156 160 159 
-0.417514 -0.589086 0.673860 164 166 165 
-0.395409 -0.588813 0.669246 173 175 174 
-0.380482 -0.588645 0.665334 177 177 177 
-0.365451 -0.588125 0.661489 176 176 176 
-0.350882 -0.588106 0.657718 179 179 177 
-0.335655 -0.587561 0.653829 179 179 177 
-0.320839 -0.586592 0.649191 175 175 175 
-0.305435 -0.586020 0.644470 180 180 180 
-0.289648 -0.585286 0.638974 183 183 185 
-0.263476 -0.584116 0.630515 194 195 197 
-0.248684 -0.583377 0.626573 183 184 186 
-0.227165 -0.583269 0.622413 180 181 183 
-0.213006 -0.583740 0.620109 176 177 181 
-0.198710 -0.583997 0.618653 169 168 173 
-0.184031 -0.584105 0.616510 166 166 166 
-0.169109 -0.583792 0.613279 160 160 160 
-0.151611 -0.583362 0.609245 158 158 158 
-0.137016 -0.582929 0.605823 151 151 151 
-0.122452 -0.582523 0.602047 149 151 150 
-0.107664 -0.581934 0.598554 148 150 149 
-0.093227 -0.581208 0.594894 154 158 159 
-0.078924 -0.580697 0.591196 161 162 164 
-0.064371 -0.580354 0.587742 159 163 164 
-0.047782 -0.580340 0.583555 160 161 163 
-0.033497 -0.580411 0.581014 153 155 154 
-0.007188 -0.579904 0.576102 145 145 145 
0.020776 -0.579964 0.570737 139 141 138 
0.034395 -0.579412 0.567500 138 140 137 
0.047866 -0.578989 0.563695 140 145 141 
0.061652 -0.578891 0.560148 142 144 143 
0.130054 -0.576494 0.540604 164 165 166 
0.170471 -0.576237 0.534015 165 165 167 
0.184370 -0.576510 0.532105 163 163 163 
0.197704 -0.576426 0.530002 166 166 166 
0.211000 -0.575644 0.527292 169 169 169 
0.224421 -0.575619 0.524569 170 170 170 
0.237924 -0.575138 0.520978 171 171 171 
0.251239 -0.574680 0.517432 171 171 171 
0.264516 -0.574268 0.513988 167 167 167 
0.277967 -0.574359 0.511472 167 167 167 
0.291381 -0.574032 0.507883 166 167 169 
0.305037 -0.573713 0.504628 163 164 166 
0.318516 -0.573215 0.501278 161 163 162 
0.331922 -0.572304 0.497816 160 160 160 
0.345006 -0.572105 0.494752 157 159 158 
0.368471 -0.571370 0.488167 150 152 150 
0.398357 -0.428171 0.173032 159 159 157 
-0.490901 -0.384819 0.246599 174 174 172 
-0.489909 -0.391140 0.259956 170 170 168 
-0.489485 -0.397835 0.274126 167 167 165 
-0.469791 -0.592385 0.694000 146 147 142 
-0.455805 -0.593886 0.692714 152 152 150 
-0.438163 -0.593171 0.690253 157 159 158 
-0.425158 -0.592742 0.688044 162 164 163 
-0.409878 -0.592223 0.685196 168 170 169 
-0.384959 -0.591698 0.678842 176 176 176 
-0.370119 -0.591433 0.674928 178 178 178 
-0.355006 -0.591153 0.671179 179 179 177 
-0.342424 -0.590650 0.667468 179 179 177 
-0.324898 -0.589655 0.662359 177 177 177 
-0.309495 -0.589037 0.657392 178 178 178 
-0.296098 -0.588505 0.653351 182 182 182 
-0.280022 -0.587875 0.648209 249 249 250 
-0.267101 -0.587389 0.644032 248 248 249 
-0.252173 -0.586993 0.640044 246 246 247 
-0.237594 -0.586498 0.636721 231 232 233 
-0.218226 -0.586456 0.632738 198 199 202 
-0.203762 -0.586851 0.630579 168 167 172 
-0.189445 -0.586919 0.629058 167 167 167 
-0.174192 -0.587113 0.626531 161 161 161 
-0.159186 -0.586656 0.623031 158 158 158 
-0.141695 -0.585762 0.618226 155 155 155 
-0.127021 -0.585328 0.614744 151 151 151 
-0.112395 -0.584864 0.611261 146 148 147 
-0.097690 -0.584085 0.607575 152 154 153 
-0.083125 -0.583420 0.604123 160 161 163 
-0.068560 -0.583406 0.600269 159 163 164 
-0.053998 -0.583098 0.596826 160 164 165 
-0.039585 -0.583256 0.593911 158 159 160 
-0.022924 -0.582844 0.590425 149 149 149 
0.001076 -0.582821 0.586218 144 144 142 
0.015074 -0.582846 0.583618 141 141 139 
0.045045 -0.582330 0.576371 138 143 139 
0.072344 -0.581214 0.568417 147 148 147 
0.085833 -0.580911 0.563982 152 153 153 
0.099280 -0.580429 0.559388 159 160 162 
0.113109 -0.579805 0.555009 161 163 163 
0.142037 -0.578427 0.548698 163 164 167 
0.156508 -0.578256 0.546043 165 166 168 
0.207019 -0.578648 0.539470 166 166 166 
0.220492 -0.578522 0.536847 169 169 169 
0.234065 -0.578050 0.533564 171 171 171 
0.247643 -0.577484 0.529734 172 172 172 
0.355236 -0.574319 0.502777 156 157 159 
0.380584 -0.573214 0.494876 145 147 146 
0.389755 -0.568550 0.483758 129 131 130 
0.391219 -0.557596 0.458773 133 137 135 
0.391723 -0.547343 0.437110 132 136 134 
0.392229 -0.540125 0.421407 132 137 133 
0.393174 -0.519042 0.375866 132 134 131 
-0.491248 -0.376048 0.230447 176 175 173 
-0.484530 -0.477138 0.450141 145 146 141 
-0.484007 -0.495597 0.491792 141 143 138 
-0.464321 -0.596740 0.706296 149 148 147 
-0.448518 -0.596585 0.703794 155 157 155 
-0.429998 -0.595855 0.701103 160 162 161 
-0.415030 -0.595547 0.698277 166 168 167 
-0.400192 -0.594797 0.694562 172 174 173 
-0.387258 -0.594902 0.691750 175 175 175 
-0.374569 -0.594490 0.688252 177 177 177 
-0.359428 -0.594126 0.684790 180 180 178 
-0.344333 -0.593952 0.680508 178 178 176 
-0.331454 -0.593149 0.676750 178 178 176 
-0.313514 -0.592127 0.670859 177 177 177 
-0.300182 -0.591557 0.666814 182 182 182 
-0.283957 -0.590945 0.661509 251 251 251 
-0.270884 -0.590989 0.658646 255 255 255 
-0.258202 -0.590380 0.654939 255 255 255 
-0.243333 -0.590373 0.651872 253 253 254 
-0.228490 -0.589538 0.647566 249 250 251 
-0.211493 -0.589556 0.643657 247 247 248 
-0.194605 -0.589915 0.641479 167 167 169 
-0.179649 -0.589970 0.639475 166 166 166 
-0.164362 -0.589518 0.636186 161 161 161 
-0.149335 -0.588998 0.632137 157 157 157 
-0.132005 -0.588189 0.627631 150 150 150 
-0.117185 -0.587555 0.623838 147 149 148 
-0.102375 -0.587053 0.620545 148 150 149 
-0.087359 -0.586845 0.616969 157 159 158 
-0.072692 -0.586273 0.613412 161 162 164 
-0.058259 -0.586095 0.609712 160 164 165 
-0.043666 -0.585651 0.606312 160 161 163 
-0.029124 -0.585865 0.603411 151 153 152 
-0.014541 -0.585789 0.600585 146 146 146 
0.009413 -0.585625 0.596551 144 144 144 
0.023464 -0.585698 0.593364 139 141 140 
0.037150 -0.585150 0.590073 140 144 143 
0.055684 -0.584586 0.584816 143 146 145 
0.069491 -0.584460 0.581270 147 149 148 
0.083229 -0.584001 0.577085 151 153 152 
0.124668 -0.581929 0.562913 166 167 171 
0.166188 -0.580916 0.555859 165 165 167 
0.180262 -0.581638 0.554581 163 163 164 
0.194104 -0.581960 0.553167 165 165 165 
0.216705 -0.581415 0.549148 169 169 169 
0.230110 -0.580833 0.546218 171 171 171 
0.243867 -0.580300 0.542600 172 172 172 
0.257445 -0.579816 0.538544 172 172 172 
0.271077 -0.579791 0.535531 171 171 171 
0.284358 -0.579468 0.532234 169 169 169 
0.298076 -0.579089 0.528615 167 168 170 
0.312019 -0.578765 0.525035 163 163 166 
0.325793 -0.578328 0.521776 159 161 160 
0.339319 -0.577414 0.518046 160 160 160 
0.365680 -0.576745 0.511184 152 153 155 
0.394189 -0.494235 0.326783 137 138 133 
0.397084 -0.450309 0.231201 152 153 148 
0.398016 -0.434581 0.196859 159 159 157 
-0.488558 -0.402881 0.293853 165 165 163 
-0.486152 -0.438988 0.370332 151 152 147 
-0.485227 -0.454873 0.405794 147 148 142 
-0.469856 -0.598795 0.718853 146 147 142 
-0.456153 -0.599694 0.717529 151 151 149 
-0.440580 -0.599307 0.715512 153 157 156 
-0.422570 -0.598720 0.712055 165 167 166 
-0.407421 -0.598295 0.709147 171 173 172 
-0.391584 -0.597892 0.705413 175 175 175 
-0.376577 -0.597695 0.701465 177 177 177 
-0.361405 -0.597318 0.697984 178 178 176 
-0.348725 -0.596938 0.694399 179 179 177 
-0.335752 -0.596171 0.690368 179 179 177 
-0.320196 -0.595633 0.685674 176 176 176 
-0.304240 -0.594605 0.680385 181 181 181 
-0.290759 -0.594331 0.676465 188 188 190 
-0.276877 -0.593897 0.672256 253 253 255 
-0.262013 -0.594022 0.669552 255 255 255 
-0.246640 -0.593670 0.666080 255 255 255 
-0.231915 -0.593183 0.661687 254 254 255 
-0.217008 -0.592898 0.657860 255 255 255 
-0.202371 -0.592676 0.654049 175 175 176 
-0.187549 -0.592599 0.652464 168 168 168 
-0.169795 -0.592514 0.649083 162 162 162 
-0.154462 -0.591860 0.645319 158 158 158 
-0.139404 -0.591318 0.641812 153 153 153 
-0.121815 -0.590938 0.637071 149 151 150 
-0.106953 -0.590401 0.633544 146 148 147 
-0.091960 -0.589818 0.630011 151 153 152 
-0.077106 -0.589620 0.626676 157 158 160 
-0.062304 -0.588924 0.622642 160 164 165 
-0.047600 -0.588586 0.618928 160 161 163 
-0.033061 -0.588818 0.616217 156 157 159 
-0.018415 -0.588734 0.613353 148 150 149 
-0.003782 -0.588781 0.610529 146 146 145 
0.017799 -0.588619 0.606337 141 141 141 
0.031727 -0.588576 0.603691 139 141 140 
0.045562 -0.588087 0.599811 139 143 140 
0.066449 -0.587367 0.593933 146 148 147 
0.080293 -0.586848 0.589531 152 154 153 
0.096287 -0.585965 0.583632 159 159 162 
0.109987 -0.585500 0.578247 165 169 169 
0.134277 -0.584024 0.572128 169 170 174 
0.149270 -0.583900 0.569729 165 166 170 
0.203588 -0.584240 0.562694 165 165 165 
0.226338 -0.583624 0.558637 169 169 169 
0.239941 -0.583176 0.555050 171 171 171 
0.253717 -0.582653 0.551427 172 172 172 
0.267464 -0.582531 0.548156 171 171 171 
0.280989 -0.582108 0.544624 169 169 169 
0.294573 -0.581786 0.540995 169 169 169 
0.349957 -0.579785 0.526542 158 158 158 
0.376095 -0.579296 0.519072 147 148 150 
0.387462 -0.577008 0.512574 139 140 139 
0.392815 -0.526182 0.400929 131 136 132 
0.393717 -0.506557 0.357688 135 137 132 
0.394658 -0.480787 0.301587 139 140 135 
0.395247 -0.469420 0.277036 145 147 141 
-0.484426 -0.478727 0.464379 144 146 143 
-0.484003 -0.497876 0.507077 144 145 139 
-0.483655 -0.508021 0.529638 144 145 139 
-0.464807 -0.602494 0.731049 150 150 148 
-0.451097 -0.602614 0.729325 153 155 154 
-0.435525 -0.602777 0.727387 159 161 160 
-0.422510 -0.602283 0.725197 165 167 166 
-0.406915 -0.601565 0.722304 170 172 171 
-0.394212 -0.601467 0.718758 174 174 174 
-0.381515 -0.600905 0.715233 177 177 177 
-0.368356 -0.600735 0.712655 177 177 176 
-0.352970 -0.600410 0.708576 180 180 178 
-0.340109 -0.599936 0.704496 181 181 179 
-0.327327 -0.599306 0.701136 176 176 176 
-0.311286 -0.598058 0.695406 178 178 176 
-0.297044 -0.597578 0.691269 182 182 184 
-0.283528 -0.597369 0.687179 251 251 251 
-0.270596 -0.597524 0.684743 254 254 254 
-0.255469 -0.597707 0.681950 254 254 254 
-0.242688 -0.596647 0.678393 253 253 253 
-0.230112 -0.596341 0.674589 254 254 254 
-0.207989 -0.595656 0.667211 252 252 252 
-0.193104 -0.595595 0.665417 169 169 169 
-0.177570 -0.595685 0.663206 164 166 165 
-0.162286 -0.595328 0.659588 161 163 162 
-0.146994 -0.594697 0.655765 159 159 159 
-0.129210 -0.594169 0.651624 149 149 149 
-0.114134 -0.593691 0.647966 150 152 151 
-0.099074 -0.593069 0.644421 147 149 148 
-0.084019 -0.592973 0.641086 156 157 157 
-0.066663 -0.592352 0.636419 159 160 165 
-0.051775 -0.592075 0.632642 161 162 164 
-0.036903 -0.592310 0.629849 159 160 162 
-0.022236 -0.591823 0.626172 153 155 154 
-0.007634 -0.591780 0.623308 145 145 145 
0.007195 -0.592140 0.621162 142 142 140 
0.026049 -0.591624 0.616437 140 142 141 
0.040089 -0.591488 0.613530 139 143 142 
0.054065 -0.590941 0.609573 145 147 144 
0.075044 -0.590099 0.603592 150 152 151 
0.091170 -0.589251 0.597597 158 160 159 
0.107393 -0.588318 0.591340 164 165 169 
0.121705 -0.587719 0.586032 171 171 176 
0.141702 -0.587095 0.582746 170 171 175 
0.159188 -0.586415 0.579615 167 168 172 
0.173670 -0.586440 0.577303 168 167 170 
0.187985 -0.586999 0.576082 161 161 163 
0.210973 -0.586982 0.573200 167 167 167 
0.236230 -0.586500 0.568520 170 170 170 
0.250183 -0.586028 0.564588 173 173 173 
0.263906 -0.585435 0.560796 172 172 172 
0.277545 -0.584868 0.557329 172 172 174 
0.291104 -0.584478 0.553450 170 170 170 
0.305183 -0.584521 0.550238 167 168 170 
0.319306 -0.584089 0.546831 165 167 167 
0.333258 -0.583316 0.542796 162 163 164 
0.360531 -0.582230 0.535460 158 159 161 
0.394040 -0.496056 0.339887 138 140 135 
0.395800 -0.462217 0.265361 148 151 144 
0.397797 -0.441543 0.220653 158 159 154 
-0.492432 -0.362392 0.208809 181 180 178 
-0.487650 -0.415390 0.328389 158 160 155 
-0.485456 -0.442854 0.388244 150 151 145 
-0.484664 -0.458959 0.424555 146 147 141 
-0.456781 -0.606093 0.743251 151 153 152 
-0.443267 -0.606205 0.741185 157 161 160 
-0.430227 -0.605971 0.739663 164 166 165 
-0.416968 -0.605113 0.737226 167 169 168 
-0.399043 -0.604359 0.732968 173 173 173 
-0.385865 -0.604326 0.729828 176 176 176 
-0.370502 -0.603990 0.726030 178 178 177 
-0.357815 -0.603590 0.722702 177 177 175 
-0.344840 -0.603206 0.718817 180 180 178 
-0.331657 -0.602208 0.715176 176 176 176 
-0.315891 -0.601753 0.709900 178 178 176 
-0.301791 -0.600786 0.705308 181 181 181 
-0.287803 -0.600261 0.701403 191 191 193 
-0.274256 -0.600546 0.698083 255 255 255 
-0.259196 -0.600792 0.695476 254 254 254 
-0.246133 -0.600184 0.692259 253 253 253 
-0.233476 -0.599245 0.687785 254 254 254 
-0.218640 -0.598704 0.683344 254 254 254 
-0.205779 -0.598907 0.679948 244 244 244 
-0.185635 -0.598930 0.677077 167 169 168 
-0.170215 -0.598691 0.673934 162 164 163 
-0.154851 -0.598021 0.670140 160 162 161 
-0.141956 -0.597963 0.667635 156 156 156 
-0.121640 -0.597064 0.662330 149 151 150 
-0.106562 -0.596602 0.658403 146 148 147 
-0.091224 -0.596281 0.655082 149 151 149 
-0.076055 -0.595644 0.651159 158 160 159 
-0.060832 -0.595447 0.647782 161 162 164 
-0.045998 -0.595163 0.643999 161 162 164 
-0.028516 -0.595244 0.640374 156 160 159 
-0.013688 -0.595274 0.637169 149 151 150 
0.001112 -0.595174 0.634573 145 145 145 
0.015667 -0.595046 0.631388 142 142 142 
0.034497 -0.594359 0.626926 141 143 142 
0.048693 -0.594273 0.623420 142 146 143 
0.062733 -0.593582 0.619357 145 146 146 
0.086016 -0.592438 0.611632 156 160 159 
0.102384 -0.591640 0.605561 162 162 165 
0.119147 -0.590515 0.598920 167 172 175 
0.134255 -0.590292 0.595702 175 177 180 
0.149372 -0.589659 0.593108 172 173 177 
0.166732 -0.588970 0.590101 167 168 172 
0.181237 -0.589534 0.588157 165 165 167 
0.195376 -0.589787 0.587129 165 165 165 
0.216147 -0.590240 0.584904 167 167 167 
0.229873 -0.589493 0.581467 170 170 170 
0.246225 -0.588917 0.577938 173 173 173 
0.260238 -0.588382 0.574278 173 173 173 
0.274199 -0.588191 0.570485 174 174 174 
0.287853 -0.587696 0.566651 174 174 175 
0.301641 -0.587198 0.563267 171 172 172 
0.315778 -0.586775 0.559625 167 169 168 
0.330066 -0.586432 0.555623 164 166 165 
0.343956 -0.585523 0.551112 160 161 163 
0.371057 -0.584324 0.543806 153 154 156 
0.383970 -0.583994 0.539659 143 145 146 
0.390440 -0.578982 0.526141 132 134 133 
0.391521 -0.567739 0.500218 139 141 140 
0.391723 -0.556507 0.476802 137 139 136 
0.393237 -0.517315 0.391221 133 139 135 
0.396274 -0.454726 0.253826 152 153 148 
0.398451 -0.424685 0.187228 162 163 161 
-0.488369 -0.404453 0.309232 165 166 161 
-0.486291 -0.422923 0.349328 156 157 151 
-0.483972 -0.480466 0.478419 148 149 144 
-0.483157 -0.510385 0.545274 146 147 141 
-0.406752 -0.608031 0.748110 172 174 173 
-0.393830 -0.607585 0.744558 175 175 175 
-0.380627 -0.607576 0.741979 177 177 177 
-0.364723 -0.607069 0.738070 176 176 174 
-0.351734 -0.606662 0.734411 178 178 176 
-0.338782 -0.605898 0.730562 177 177 175 
-0.322846 -0.605158 0.725185 177 177 177 
-0.308836 -0.604157 0.720774 181 181 179 
-0.294627 -0.604250 0.717184 181 181 183 
-0.280811 -0.603542 0.712214 254 254 254 
-0.265246 -0.604208 0.709841 252 252 252 
-0.252353 -0.603661 0.706857 252 252 252 
-0.236876 -0.602771 0.701460 253 253 253 
-0.224181 -0.602136 0.697525 255 253 255 
-0.209077 -0.601938 0.693285 255 255 255 
-0.193903 -0.601699 0.690569 171 173 171 
-0.178385 -0.601906 0.688275 166 168 167 
-0.162730 -0.601395 0.684828 160 162 161 
-0.149654 -0.601171 0.682034 157 157 157 
-0.134355 -0.600636 0.678186 153 153 153 
-0.113949 -0.599797 0.673070 147 149 148 
-0.101098 -0.599559 0.670503 147 149 148 
-0.083185 -0.598897 0.665809 151 153 152 
-0.067677 -0.598690 0.662356 158 157 161 
-0.052607 -0.598451 0.658503 160 161 163 
-0.037593 -0.598187 0.654860 158 162 163 
-0.020002 -0.598236 0.651212 152 156 155 
-0.005167 -0.598181 0.647997 147 147 147 
0.009584 -0.598062 0.644825 144 144 144 
0.024094 -0.598035 0.642135 142 142 142 
0.040710 -0.597752 0.638105 142 146 145 
0.057365 -0.596980 0.633560 143 145 142 
0.071406 -0.596154 0.629187 151 151 151 
0.085770 -0.595582 0.624350 157 161 160 
0.099629 -0.594227 0.618495 161 162 164 
0.114095 -0.593925 0.613378 166 170 173 
0.126832 -0.593713 0.610192 169 172 177 
0.142117 -0.593327 0.607626 171 173 178 
0.157305 -0.592601 0.604138 170 173 177 
0.176732 -0.592243 0.600343 166 165 170 
0.200664 -0.592968 0.598895 165 165 165 
0.223877 -0.592834 0.595480 168 168 168 
0.237612 -0.592117 0.592256 172 172 172 
0.254158 -0.591671 0.588068 173 173 173 
0.268168 -0.591081 0.584501 173 173 173 
0.284346 -0.590399 0.579769 174 174 176 
0.298143 -0.590015 0.576034 174 174 174 
0.312238 -0.589386 0.572142 168 170 169 
0.326632 -0.589066 0.568388 166 168 167 
0.340897 -0.588718 0.564391 160 161 163 
0.354826 -0.587834 0.560208 160 160 160 
0.368577 -0.587488 0.556992 156 157 159 
0.381775 -0.587092 0.552655 147 148 150 
0.392199 -0.543510 0.454457 138 138 138 
0.392810 -0.526720 0.416884 136 138 135 
0.394558 -0.481999 0.318813 141 142 137 
0.399493 -0.415319 0.168100 166 166 166 
-0.491780 -0.363659 0.222952 180 179 177 
-0.484503 -0.460667 0.438637 148 149 143 
-0.372141 -0.610738 0.753010 176 176 175 
-0.358936 -0.610068 0.749667 177 177 175 
-0.345972 -0.609629 0.745985 177 177 175 
-0.330003 -0.608815 0.740881 176 176 176 
-0.315697 -0.608092 0.736560 177 177 175 
-0.301465 -0.607628 0.732648 183 183 184 
-0.284850 -0.606968 0.726991 225 225 225 
-0.271606 -0.606670 0.723378 254 254 254 
-0.256035 -0.606794 0.720145 253 253 253 
-0.243120 -0.605710 0.716202 253 253 253 
-0.227432 -0.605137 0.710561 254 252 253 
-0.212372 -0.604472 0.706090 255 255 255 
-0.199232 -0.604755 0.704019 166 168 167 
-0.183876 -0.604749 0.701792 169 171 170 
-0.170848 -0.604680 0.699744 164 166 165 
-0.157480 -0.604520 0.696807 158 160 159 
-0.141928 -0.603895 0.693215 156 156 156 
-0.126540 -0.603390 0.689234 150 150 150 
-0.113408 -0.603271 0.686576 148 150 149 
-0.095385 -0.602542 0.682108 147 149 148 
-0.082713 -0.601879 0.678562 151 153 152 
-0.069891 -0.601681 0.675400 157 157 158 
-0.056985 -0.601317 0.672303 160 160 162 
-0.044180 -0.601513 0.669412 160 161 163 
-0.029122 -0.601234 0.665765 159 163 164 
-0.011605 -0.601203 0.661859 150 152 151 
0.003575 -0.601608 0.659354 145 145 145 
0.018325 -0.601499 0.656092 145 145 145 
0.032541 -0.600818 0.652697 142 144 143 
0.049401 -0.600556 0.648298 142 145 144 
0.066105 -0.599665 0.643394 148 148 148 
0.080380 -0.598843 0.638629 154 156 155 
0.096940 -0.597553 0.632048 164 165 167 
0.111585 -0.597189 0.626677 189 190 194 
0.126833 -0.597046 0.624453 182 186 189 
0.139786 -0.596692 0.621694 174 175 179 
0.152515 -0.595704 0.617741 169 172 175 
0.167362 -0.594999 0.613827 169 169 173 
0.184286 -0.594804 0.611278 164 163 165 
0.208058 -0.595743 0.609872 164 164 164 
0.231481 -0.595661 0.606308 171 171 171 
0.245531 -0.594827 0.603053 172 172 172 
0.262185 -0.594412 0.598529 173 173 173 
0.276163 -0.593683 0.594824 176 176 176 
0.292403 -0.593148 0.590173 174 174 176 
0.306474 -0.592619 0.586459 172 172 172 
0.320695 -0.592115 0.582522 169 171 170 
0.335320 -0.591803 0.578401 166 168 166 
0.351788 -0.591033 0.573115 160 161 163 
0.377241 -0.590117 0.566608 153 154 156 
0.392492 -0.533862 0.437927 138 139 137 
0.393635 -0.504384 0.372057 137 141 138 
0.395076 -0.468422 0.293583 145 147 142 
0.398566 -0.431531 0.210732 161 161 159 
-0.490863 -0.370743 0.244251 176 178 175 
-0.489970 -0.376711 0.257101 175 177 174 
-0.489593 -0.382930 0.271057 172 174 171 
-0.488965 -0.389514 0.285247 170 169 167 
-0.485720 -0.426492 0.366162 153 154 149 
-0.483737 -0.464130 0.451979 148 149 143 
-0.483528 -0.482459 0.493094 148 150 144 
-0.483083 -0.495424 0.522504 148 149 143 
-0.342427 -0.612877 0.758501 177 177 175 
-0.329310 -0.612106 0.754111 176 176 176 
-0.314485 -0.611372 0.750245 179 179 179 
-0.294527 -0.610613 0.744227 186 186 186 
-0.275334 -0.609653 0.737093 255 255 255 
-0.259852 -0.609363 0.733968 253 253 253 
-0.246710 -0.608779 0.729654 253 253 253 
-0.233342 -0.608544 0.725587 253 253 253 
-0.220616 -0.607693 0.721557 253 253 253 
-0.207522 -0.607737 0.718083 252 252 252 
-0.192102 -0.608092 0.716460 172 172 172 
-0.178959 -0.608121 0.714383 166 168 167 
-0.163057 -0.607446 0.710930 160 162 161 
-0.149941 -0.607227 0.708148 158 159 159 
-0.134224 -0.606609 0.704472 155 155 155 
-0.120960 -0.606519 0.701428 149 149 149 
-0.108060 -0.606487 0.698214 145 146 148 
-0.095291 -0.605648 0.694996 146 148 147 
-0.082117 -0.605329 0.691832 151 153 150 
-0.069112 -0.604997 0.688655 155 157 154 
-0.056312 -0.604846 0.685273 160 161 163 
-0.038315 -0.604573 0.680949 159 160 162 
-0.022908 -0.604661 0.677754 158 159 161 
-0.007835 -0.604684 0.674368 150 152 151 
0.012017 -0.604567 0.670060 143 143 143 
0.026878 -0.604476 0.667008 142 142 142 
0.041324 -0.604118 0.663227 144 144 144 
0.058231 -0.603254 0.658286 146 146 146 
0.074978 -0.602366 0.653215 149 151 150 
0.089337 -0.601165 0.648019 158 160 159 
0.106328 -0.600537 0.641789 167 167 169 
0.121720 -0.600376 0.638785 248 249 250 
0.134796 -0.600053 0.637171 246 248 248 
0.147704 -0.599168 0.632844 241 241 243 
0.160080 -0.598128 0.628490 219 220 222 
0.175082 -0.597488 0.624663 186 186 188 
0.191790 -0.597511 0.622924 155 154 158 
0.206433 -0.598761 0.622958 165 165 163 
0.220562 -0.598936 0.621155 167 167 167 
0.239312 -0.598309 0.616934 171 171 171 
0.253559 -0.597579 0.613328 173 173 173 
0.270304 -0.597201 0.609106 174 174 174 
0.286653 -0.596377 0.604411 177 174 175 
0.300694 -0.595871 0.600398 172 172 174 
0.314870 -0.595288 0.596662 172 172 172 
0.329367 -0.594907 0.592337 168 170 169 
0.346271 -0.594104 0.586850 162 163 163 
0.362798 -0.593215 0.581910 158 159 161 
0.390523 -0.588402 0.565115 135 137 136 
0.394114 -0.493914 0.353830 139 141 138 
0.397231 -0.444194 0.242889 158 159 154 
-0.484694 -0.439856 0.401223 153 155 150 
-0.304676 -0.613851 0.760572 182 182 182 
-0.290346 -0.613497 0.756686 187 187 187 
-0.276639 -0.613002 0.750689 254 254 254 
-0.263703 -0.612427 0.748152 253 253 253 
-0.250157 -0.612412 0.744155 253 253 253 
-0.236860 -0.611594 0.739861 253 253 255 
-0.223789 -0.611408 0.736371 253 253 253 
-0.210744 -0.610987 0.732368 255 255 255 
-0.197518 -0.610567 0.729736 170 170 172 
-0.184387 -0.610920 0.728050 170 170 170 
-0.171331 -0.610851 0.726023 162 166 165 
-0.157885 -0.610763 0.723312 160 160 160 
-0.144833 -0.610500 0.720780 159 159 159 
-0.131538 -0.609830 0.717363 153 153 153 
-0.118338 -0.609721 0.714348 147 147 147 
-0.105230 -0.609494 0.711137 147 148 149 
-0.092105 -0.609146 0.708335 146 148 147 
-0.079090 -0.608347 0.704716 151 153 149 
-0.065866 -0.608092 0.701182 156 159 157 
-0.052931 -0.607740 0.698046 160 161 163 
-0.039847 -0.608061 0.695041 159 160 162 
-0.026946 -0.608158 0.692095 160 161 163 
-0.011884 -0.607784 0.688437 154 156 155 
0.003331 -0.608166 0.685326 148 148 148 
0.018400 -0.607962 0.682039 145 145 145 
0.033210 -0.607903 0.678696 144 144 144 
0.047723 -0.606861 0.674413 145 146 146 
0.062266 -0.606677 0.670668 146 146 146 
0.076762 -0.605736 0.665821 152 154 153 
0.088949 -0.604507 0.660936 160 162 161 
0.103499 -0.603759 0.655814 162 162 164 
0.116592 -0.603749 0.653338 254 254 255 
0.132189 -0.603976 0.652579 255 255 255 
0.145266 -0.603115 0.648509 255 255 255 
0.157953 -0.601523 0.642769 253 253 253 
0.170434 -0.600410 0.637904 249 249 249 
0.185108 -0.600135 0.635625 247 247 247 
0.199568 -0.600736 0.635518 164 164 166 
0.214230 -0.601985 0.634712 166 166 166 
0.228329 -0.601708 0.632385 167 167 167 
0.242626 -0.601508 0.629328 171 171 171 
0.256969 -0.600697 0.625666 172 172 172 
0.271440 -0.600225 0.621907 175 175 175 
0.285451 -0.599348 0.617422 176 176 176 
0.299604 -0.598726 0.613419 174 174 176 
0.323428 -0.598003 0.606869 170 170 170 
0.338189 -0.597722 0.602410 165 167 166 
0.354919 -0.596760 0.596743 161 162 163 
0.371652 -0.596179 0.591988 155 157 159 
0.385261 -0.595005 0.588511 151 153 152 
0.391847 -0.565246 0.518379 144 146 143 
0.391759 -0.554268 0.494150 143 145 142 
0.392021 -0.543933 0.471301 142 144 141 
0.394413 -0.483389 0.335914 141 143 138 
-0.485061 -0.430056 0.383651 151 153 148 
-0.484456 -0.443338 0.413949 153 155 150 
-0.482854 -0.484436 0.508053 151 152 147 
-0.482674 -0.497520 0.537836 152 153 147 
-0.269752 -0.615960 0.762763 253 253 253 
-0.256779 -0.615415 0.758878 253 253 253 
-0.243183 -0.615035 0.755031 253 253 253 
-0.229547 -0.614833 0.751346 253 253 253 
-0.216788 -0.614564 0.747790 254 254 254 
-0.203176 -0.613725 0.743571 209 209 211 
-0.187361 -0.614599 0.742396 172 172 172 
-0.174189 -0.613906 0.739993 162 166 165 
-0.160603 -0.614247 0.737780 161 161 160 
-0.147609 -0.613598 0.734741 156 158 157 
-0.134147 -0.613424 0.732040 156 156 156 
-0.120715 -0.613105 0.729027 152 152 152 
-0.107583 -0.612903 0.725824 147 149 148 
-0.094434 -0.612628 0.722667 147 149 148 
-0.081132 -0.611847 0.719009 149 151 148 
-0.067895 -0.611543 0.715482 156 158 155 
-0.054903 -0.611321 0.712004 159 160 162 
-0.041663 -0.610921 0.709050 160 161 163 
-0.028609 -0.611122 0.706047 159 160 162 
-0.015610 -0.611111 0.703119 156 157 159 
-0.000535 -0.611181 0.699447 150 152 151 
0.014634 -0.611559 0.696353 145 146 145 
0.029811 -0.611347 0.693497 145 145 145 
0.044313 -0.610473 0.689186 146 146 146 
0.059207 -0.610184 0.685119 146 148 147 
0.073821 -0.609202 0.680552 151 153 152 
0.088344 -0.607986 0.674462 160 162 161 
0.100775 -0.607024 0.669639 166 166 168 
0.113983 -0.607013 0.666960 247 247 248 
0.127166 -0.608012 0.668217 253 253 255 
0.140274 -0.607657 0.665920 255 255 255 
0.153150 -0.606274 0.659704 255 255 255 
0.165616 -0.603875 0.653455 255 255 255 
0.178122 -0.602870 0.649220 255 255 255 
0.192735 -0.603298 0.647903 253 252 253 
0.207561 -0.604598 0.648482 166 166 166 
0.222089 -0.605104 0.646566 166 166 166 
0.236383 -0.604922 0.644183 167 167 167 
0.250615 -0.604078 0.640357 172 172 172 
0.265171 -0.603482 0.636269 174 174 174 
0.279658 -0.602846 0.632359 175 175 175 
0.293746 -0.601979 0.627775 174 174 174 
0.308007 -0.601492 0.623977 175 175 177 
0.322412 -0.600825 0.619898 172 172 172 
0.337164 -0.600491 0.615434 167 169 168 
0.351820 -0.600041 0.610464 163 165 164 
0.365959 -0.598952 0.605073 158 158 160 
0.380635 -0.598804 0.602734 155 156 158 
0.392175 -0.577388 0.550455 144 146 145 
0.391956 -0.571067 0.537165 145 147 145 
0.393156 -0.513027 0.406803 140 143 140 
0.393601 -0.504326 0.387093 140 140 138 
0.394941 -0.469612 0.310392 145 147 142 
0.395765 -0.457172 0.281850 152 153 148 
0.399068 -0.421022 0.200421 166 166 164 
-0.488112 -0.390536 0.300375 168 168 166 
-0.487243 -0.401652 0.324746 165 165 163 
-0.486542 -0.408546 0.339906 163 165 162 
-0.483378 -0.463659 0.466576 150 153 146 
-0.254872 -0.618610 0.772363 253 253 253 
-0.241305 -0.618272 0.768563 253 253 255 
-0.227883 -0.618324 0.764981 253 253 253 
-0.214931 -0.617968 0.761937 255 255 255 
-0.201036 -0.617608 0.757768 184 184 186 
-0.187742 -0.617807 0.756350 171 171 171 
-0.174407 -0.617654 0.754198 163 167 166 
-0.160905 -0.617432 0.751568 160 160 160 
-0.147413 -0.617175 0.749152 156 158 157 
-0.133949 -0.616975 0.746199 156 156 156 
-0.120598 -0.616210 0.742697 151 151 151 
-0.107258 -0.616007 0.739423 147 149 148 
-0.094085 -0.615718 0.736542 149 151 150 
-0.080452 -0.615335 0.733047 149 151 148 
-0.067194 -0.615009 0.729524 156 158 156 
-0.054009 -0.614835 0.725958 159 160 162 
-0.040746 -0.614468 0.722985 161 162 164 
-0.027518 -0.614575 0.719959 159 160 162 
-0.014419 -0.614597 0.716713 155 156 158 
0.000691 -0.614698 0.713034 150 152 151 
0.015886 -0.614537 0.709687 145 147 146 
0.036110 -0.614193 0.704842 144 144 144 
0.050937 -0.613742 0.700874 143 143 143 
0.065876 -0.612885 0.696284 148 150 149 
0.083131 -0.611851 0.690093 157 159 158 
0.097824 -0.610367 0.683806 166 166 167 
0.110960 -0.609887 0.680168 194 194 196 
0.124740 -0.611864 0.682443 255 255 255 
0.138033 -0.612149 0.681908 252 252 254 
0.150909 -0.610697 0.676122 254 254 254 
0.163542 -0.608403 0.670012 255 255 255 
0.176040 -0.606729 0.664730 253 253 253 
0.190803 -0.605893 0.661470 254 254 255 
0.205768 -0.607628 0.661308 164 164 166 
0.220501 -0.608275 0.660423 167 167 167 
0.234775 -0.608003 0.657460 166 166 166 
0.249311 -0.607723 0.654287 171 171 171 
0.263857 -0.606847 0.650305 172 172 172 
0.278444 -0.606368 0.646519 175 175 175 
0.292799 -0.605481 0.641887 176 176 176 
0.307120 -0.604927 0.637615 176 176 178 
0.321488 -0.604295 0.633530 173 173 175 
0.336256 -0.603856 0.628770 166 169 168 
0.348820 -0.603511 0.624499 166 168 167 
0.362913 -0.602217 0.619219 160 163 161 
0.396369 -0.448325 0.266178 156 156 154 
0.397986 -0.433292 0.232227 161 162 157 
0.399619 -0.411552 0.180973 168 168 168 
-0.484047 -0.444768 0.427290 152 153 148 
-0.482990 -0.467503 0.480362 152 153 148 
-0.206833 -0.621400 0.774371 254 254 254 
-0.193292 -0.621444 0.771330 172 170 171 
-0.179942 -0.621227 0.769382 168 170 169 
-0.166229 -0.620971 0.766758 163 164 166 
-0.152864 -0.620708 0.764383 159 159 161 
-0.139128 -0.620497 0.761671 155 155 155 
-0.125770 -0.620295 0.758326 149 149 149 
-0.112401 -0.620070 0.755891 147 149 148 
-0.098956 -0.619778 0.752414 149 151 150 
-0.085479 -0.618732 0.748443 149 151 150 
-0.071955 -0.618481 0.744828 154 156 155 
-0.058524 -0.618213 0.741244 157 158 160 
-0.045139 -0.617789 0.738039 159 160 162 
-0.031735 -0.618048 0.735160 160 161 163 
-0.018808 -0.617703 0.731665 157 158 160 
-0.005582 -0.618103 0.728685 153 155 154 
0.009708 -0.617967 0.724789 149 151 150 
0.024917 -0.617921 0.721333 145 145 145 
0.040058 -0.617633 0.717867 145 145 145 
0.052719 -0.617245 0.714350 143 143 143 
0.067860 -0.616285 0.709680 150 152 151 
0.080114 -0.615428 0.704939 156 158 157 
0.092422 -0.614214 0.699481 163 165 164 
0.105324 -0.613185 0.695075 160 160 161 
0.119395 -0.614200 0.695126 251 251 251 
0.133042 -0.616185 0.697376 254 254 254 
0.145936 -0.615227 0.693575 254 254 254 
0.158904 -0.613178 0.687074 254 254 254 
0.171507 -0.610723 0.681356 254 254 254 
0.183833 -0.609078 0.676359 251 251 251 
0.198856 -0.609589 0.675119 181 181 183 
0.213958 -0.611302 0.674844 167 167 168 
0.228425 -0.611505 0.672345 167 167 167 
0.243051 -0.611169 0.669401 166 166 166 
0.257609 -0.610884 0.666152 171 171 171 
0.272344 -0.610228 0.661761 174 174 174 
0.287033 -0.609556 0.657761 177 177 177 
0.301428 -0.608690 0.653054 179 179 179 
0.315744 -0.607735 0.648539 174 174 176 
0.330359 -0.606934 0.643813 172 172 172 
0.345429 -0.606779 0.639101 165 167 166 
0.359922 -0.605790 0.633402 161 163 162 
0.374541 -0.605234 0.628239 158 158 160 
0.388083 -0.603178 0.622923 145 149 150 
0.392631 -0.584168 0.577335 147 149 148 
0.392387 -0.529802 0.455216 143 145 144 
0.392720 -0.519908 0.432937 138 143 139 
0.394061 -0.490962 0.367598 143 143 141 
-0.491602 -0.348920 0.210037 185 185 183 
-0.490720 -0.358680 0.236903 181 181 179 
-0.486088 -0.411800 0.356506 159 161 156 
-0.483615 -0.450782 0.447195 153 153 149 
-0.174680 -0.624455 0.783028 168 170 169 
-0.160944 -0.624298 0.780321 162 162 164 
-0.147281 -0.623884 0.777579 157 159 158 
-0.133774 -0.623764 0.774565 155 155 155 
-0.120237 -0.623492 0.771825 153 153 153 
-0.106654 -0.623254 0.768479 149 151 150 
-0.093079 -0.622883 0.765225 148 150 149 
-0.079439 -0.622532 0.761674 152 154 153 
-0.065790 -0.622060 0.757788 153 155 154 
-0.052386 -0.621743 0.754798 157 159 161 
-0.038844 -0.621364 0.751192 159 160 162 
-0.025534 -0.621062 0.747569 159 160 162 
-0.012317 -0.621152 0.744545 154 156 158 
0.000580 -0.621631 0.741632 151 153 152 
0.013449 -0.621395 0.738265 148 150 149 
0.026223 -0.621386 0.735332 145 145 145 
0.039191 -0.621177 0.732335 146 146 146 
0.051894 -0.620810 0.728820 146 146 146 
0.064585 -0.619803 0.724764 148 150 149 
0.077096 -0.619015 0.720142 152 154 153 
0.089598 -0.618151 0.714968 158 160 159 
0.102440 -0.617063 0.710063 163 164 163 
0.116661 -0.617662 0.708878 250 250 250 
0.130490 -0.619635 0.711622 252 252 252 
0.143808 -0.619785 0.709334 254 254 254 
0.156782 -0.618158 0.704471 252 252 252 
0.169401 -0.615235 0.697631 253 253 253 
0.182092 -0.613477 0.692305 253 253 253 
0.196788 -0.612795 0.688238 224 224 225 
0.212112 -0.614520 0.688700 167 167 169 
0.226831 -0.614519 0.686463 167 167 167 
0.241574 -0.614632 0.683602 167 167 167 
0.256272 -0.614472 0.680051 172 172 172 
0.270996 -0.613689 0.676229 173 173 173 
0.285995 -0.613131 0.672155 176 176 176 
0.300506 -0.612299 0.667087 179 179 179 
0.314896 -0.611154 0.662339 176 176 178 
0.329582 -0.610464 0.658153 173 173 175 
0.341977 -0.610044 0.653694 169 169 169 
0.354595 -0.609696 0.649302 163 165 164 
0.369050 -0.608760 0.643512 159 161 160 
0.383329 -0.607342 0.638840 154 155 157 
0.392694 -0.596226 0.609749 146 148 147 
0.391892 -0.552676 0.512531 145 147 146 
0.394464 -0.480563 0.349284 144 144 142 
0.395027 -0.471288 0.327919 144 145 140 
-0.487269 -0.391407 0.315453 167 167 165 
-0.484486 -0.427011 0.396716 159 160 155 
-0.482446 -0.469224 0.494767 153 153 151 
-0.482069 -0.481826 0.523181 154 155 149 
-0.133473 -0.627386 0.789845 155 155 155 
-0.119778 -0.627074 0.786732 152 152 152 
-0.106364 -0.626773 0.783477 149 151 148 
-0.092583 -0.626421 0.780162 150 152 149 
-0.078955 -0.626098 0.776275 152 154 153 
-0.065221 -0.625688 0.772640 153 155 154 
-0.051629 -0.625389 0.769057 157 158 160 
-0.037901 -0.624868 0.765464 159 160 162 
-0.024626 -0.624565 0.762049 158 159 161 
-0.011106 -0.624620 0.758689 153 158 158 
0.001904 -0.625083 0.755783 150 152 151 
0.014939 -0.624917 0.752922 149 151 150 
0.027660 -0.624865 0.749419 146 146 146 
0.040770 -0.624559 0.746388 147 147 147 
0.053569 -0.624240 0.742800 146 146 146 
0.066587 -0.623876 0.738555 148 150 149 
0.079274 -0.622977 0.734097 154 156 155 
0.091760 -0.621663 0.728607 160 162 161 
0.105037 -0.620355 0.723434 165 165 165 
0.119429 -0.621514 0.723835 254 254 254 
0.133353 -0.623497 0.726178 254 254 254 
0.146836 -0.623609 0.723437 252 252 252 
0.159861 -0.621847 0.718176 252 252 252 
0.172404 -0.619046 0.711401 254 254 254 
0.185095 -0.616693 0.705167 255 255 255 
0.200050 -0.616558 0.702292 181 181 183 
0.215387 -0.617549 0.701842 167 167 169 
0.230168 -0.618181 0.700060 165 165 165 
0.244919 -0.617766 0.696736 167 167 167 
0.259693 -0.617591 0.693100 172 172 172 
0.274714 -0.616719 0.689265 173 173 173 
0.289609 -0.616245 0.685136 177 177 177 
0.304367 -0.615400 0.680279 180 180 180 
0.318995 -0.614822 0.675373 176 176 178 
0.333680 -0.613650 0.670612 173 173 175 
0.346244 -0.613226 0.666038 170 170 170 
0.361233 -0.612910 0.660621 162 164 163 
0.375776 -0.611535 0.654589 160 162 161 
0.392769 -0.587879 0.597346 150 152 151 
0.392537 -0.572660 0.563352 151 153 152 
0.391989 -0.558379 0.531105 149 151 150 
0.391893 -0.539783 0.489045 145 147 146 
0.392970 -0.510531 0.422499 142 144 141 
0.395514 -0.457814 0.302607 152 151 147 
0.397219 -0.437446 0.255027 160 160 158 
0.398809 -0.422848 0.221426 167 167 165 
0.400208 -0.400699 0.168330 172 172 170 
-0.491263 -0.350443 0.224241 185 185 183 
-0.489456 -0.362237 0.254166 179 179 177 
-0.489197 -0.368334 0.267622 176 176 174 
-0.488697 -0.374601 0.281738 177 177 175 
-0.485413 -0.415118 0.373537 160 161 156 
-0.092253 -0.630004 0.794655 149 151 149 
-0.078425 -0.629734 0.790967 152 154 153 
-0.064529 -0.629282 0.787547 154 156 155 
-0.050738 -0.628839 0.783977 157 158 160 
-0.037021 -0.628317 0.780374 159 160 162 
-0.023399 -0.628057 0.776854 158 159 161 
-0.010117 -0.628168 0.773187 152 156 157 
0.003209 -0.628570 0.769974 150 152 151 
0.016247 -0.628399 0.767089 149 151 150 
0.029209 -0.628259 0.763531 147 147 147 
0.042465 -0.628495 0.760970 147 147 147 
0.055470 -0.627554 0.756822 146 146 146 
0.068496 -0.627202 0.752526 150 152 151 
0.081286 -0.626360 0.747962 155 157 156 
0.093997 -0.625124 0.742262 163 165 164 
0.107565 -0.623899 0.737410 167 167 167 
0.122443 -0.625969 0.739768 254 254 254 
0.136527 -0.627654 0.741607 250 250 250 
0.149903 -0.627328 0.738013 252 252 252 
0.162965 -0.625528 0.732644 254 254 254 
0.175624 -0.623130 0.726206 252 252 252 
0.188134 -0.620575 0.719353 255 255 255 
0.203313 -0.620220 0.716473 167 167 169 
0.218639 -0.621192 0.716104 168 168 169 
0.233765 -0.621766 0.714265 165 165 165 
0.248414 -0.621435 0.710648 167 167 167 
0.263366 -0.621200 0.707019 171 171 171 
0.278515 -0.620392 0.702566 174 174 174 
0.293512 -0.619794 0.698139 179 179 179 
0.308215 -0.618562 0.692950 180 180 180 
0.323032 -0.617912 0.688319 176 176 178 
0.337994 -0.617353 0.683597 173 173 175 
0.350378 -0.616446 0.678392 169 169 169 
0.362868 -0.615938 0.673675 163 165 164 
0.375073 -0.615215 0.668299 159 161 160 
0.388416 -0.612349 0.661567 147 149 148 
0.391648 -0.607456 0.649317 140 144 145 
0.392242 -0.564174 0.549851 151 153 152 
0.392124 -0.529834 0.472103 145 147 146 
0.393499 -0.499367 0.401901 142 144 141 
0.394019 -0.490793 0.382224 144 144 142 
0.399457 -0.409375 0.194325 170 170 168 
-0.484278 -0.428435 0.409764 158 160 155 
-0.483191 -0.450285 0.461303 155 156 151 
-0.052564 -0.632858 0.800095 157 157 157 
-0.038768 -0.632318 0.796203 159 160 162 
-0.025069 -0.632027 0.792372 157 158 160 
-0.011667 -0.631661 0.788717 154 158 159 
0.001782 -0.632146 0.785380 151 153 152 
0.014969 -0.632026 0.782158 149 151 150 
0.028133 -0.631684 0.778935 146 146 146 
0.041235 -0.632106 0.776054 146 146 146 
0.054648 -0.631606 0.772299 146 146 146 
0.067675 -0.630717 0.767782 148 150 149 
0.080762 -0.629803 0.762706 153 155 154 
0.093698 -0.629035 0.757600 163 164 166 
0.107385 -0.627851 0.752281 167 168 169 
0.122332 -0.629885 0.755244 255 255 255 
0.136635 -0.631484 0.756681 253 253 253 
0.150312 -0.631596 0.753774 253 253 253 
0.163463 -0.629909 0.748547 253 253 253 
0.176181 -0.627528 0.742054 255 255 255 
0.188824 -0.624827 0.735237 253 253 253 
0.201495 -0.624043 0.731886 177 177 179 
0.217038 -0.624717 0.731151 165 165 167 
0.232243 -0.625329 0.728890 167 167 167 
0.247103 -0.624941 0.725464 165 167 166 
0.262064 -0.624680 0.721811 170 170 170 
0.277083 -0.623861 0.717887 173 173 173 
0.289718 -0.623225 0.713890 179 179 179 
0.302373 -0.622930 0.710170 179 179 179 
0.314796 -0.622155 0.705693 179 179 179 
0.327120 -0.621494 0.701270 177 177 179 
0.339707 -0.620887 0.697285 174 174 176 
0.352228 -0.620016 0.692202 169 169 169 
0.364750 -0.619359 0.686767 165 165 165 
0.376929 -0.618552 0.681688 159 161 160 
0.388298 -0.615703 0.675560 149 149 149 
0.396490 -0.443256 0.278496 157 159 156 
-0.487606 -0.377361 0.296572 172 172 170 
-0.486572 -0.394862 0.336145 166 166 164 
-0.482373 -0.469360 0.509542 158 159 154 
-0.481923 -0.482303 0.538517 159 160 155 
-0.021122 -0.635471 0.807041 157 158 160 
-0.007566 -0.635555 0.803258 153 157 158 
0.005749 -0.635558 0.799426 152 154 153 
0.018893 -0.635432 0.796770 150 152 151 
0.032414 -0.635614 0.793355 145 145 145 
0.045611 -0.635397 0.790239 150 150 150 
0.058995 -0.634877 0.786144 149 149 149 
0.072360 -0.633968 0.781247 151 153 152 
0.085524 -0.633105 0.775937 158 160 159 
0.098711 -0.632175 0.771077 164 165 167 
0.112688 -0.631912 0.766853 185 186 186 
0.125368 -0.634841 0.772172 255 255 255 
0.139709 -0.635605 0.772108 253 253 253 
0.153249 -0.635319 0.768597 253 253 253 
0.166674 -0.634055 0.763807 253 253 253 
0.179519 -0.631584 0.757424 253 253 253 
0.192327 -0.628953 0.750247 254 254 254 
0.207430 -0.628105 0.747936 166 166 168 
0.220462 -0.628340 0.745502 166 166 167 
0.235513 -0.628496 0.742848 168 168 168 
0.250568 -0.628576 0.739575 167 169 168 
0.265556 -0.628277 0.736149 171 171 171 
0.278219 -0.627354 0.732485 172 172 172 
0.291152 -0.627127 0.728670 178 178 178 
0.303827 -0.626481 0.724684 179 179 179 
0.316258 -0.625670 0.720419 179 179 179 
0.328794 -0.624920 0.715959 178 178 180 
0.341413 -0.623923 0.710872 175 175 177 
0.354137 -0.623437 0.706741 170 170 171 
0.366709 -0.623359 0.700817 165 165 165 
0.379132 -0.622429 0.696137 160 162 161 
0.392805 -0.597614 0.638292 151 154 153 
0.392679 -0.576296 0.589695 156 158 157 
0.392453 -0.570531 0.576396 153 155 154 
0.391920 -0.540361 0.506942 147 149 148 
0.392408 -0.515364 0.449935 142 144 143 
0.394614 -0.478060 0.363746 146 146 144 
0.395073 -0.468411 0.341004 149 149 147 
0.395513 -0.458919 0.319952 151 151 149 
0.398160 -0.426944 0.244152 165 165 163 
0.399581 -0.412960 0.211517 172 172 170 
-0.482921 -0.437652 0.442080 158 159 154 
-0.482657 -0.452033 0.475334 156 157 152 
-0.481525 -0.486971 0.554633 161 161 159 
0.015189 -0.638875 0.813202 151 153 152 
0.028454 -0.639219 0.810064 149 149 149 
0.041885 -0.638866 0.806919 149 149 149 
0.055392 -0.638553 0.803120 149 149 149 
0.068981 -0.637977 0.798411 152 152 152 
0.082394 -0.637167 0.792828 154 154 154 
0.095579 -0.636288 0.787804 163 164 166 
0.109613 -0.635307 0.782501 166 167 169 
0.122357 -0.638143 0.787422 254 254 254 
0.137058 -0.639587 0.788787 254 254 254 
0.150893 -0.639548 0.785774 253 253 253 
0.164286 -0.638563 0.780845 253 253 253 
0.177597 -0.636634 0.775389 253 253 253 
0.190366 -0.633844 0.767667 254 254 254 
0.203230 -0.632509 0.764173 172 172 173 
0.218812 -0.632514 0.761993 166 166 166 
0.234127 -0.632494 0.758986 166 165 165 
0.249169 -0.632062 0.755418 167 169 168 
0.264317 -0.631697 0.751459 169 169 169 
0.279528 -0.631423 0.747953 173 173 173 
0.292379 -0.630636 0.743624 179 177 178 
0.305212 -0.629934 0.739576 179 179 179 
0.317870 -0.629094 0.735309 179 181 180 
0.330475 -0.628394 0.730481 177 178 180 
0.343162 -0.627357 0.724943 176 176 178 
0.355928 -0.626901 0.720986 169 169 171 
0.368522 -0.626670 0.714761 166 166 167 
0.381307 -0.625661 0.710354 159 161 160 
0.392194 -0.616734 0.688083 144 146 145 
0.392902 -0.588502 0.624296 155 157 156 
0.392851 -0.582599 0.609925 156 158 157 
0.391975 -0.546038 0.525268 150 152 151 
0.396193 -0.446069 0.294912 159 159 157 
-0.485831 -0.397638 0.352258 168 169 164 
-0.484380 -0.411976 0.386251 161 163 158 
-0.483482 -0.427347 0.422867 160 162 157 
-0.482302 -0.455925 0.488867 159 159 157 
0.049050 -0.642775 0.821002 150 150 150 
0.062811 -0.642217 0.816576 150 150 150 
0.076296 -0.641270 0.811257 152 152 152 
0.089799 -0.640368 0.805694 159 160 160 
0.103848 -0.639491 0.800472 166 167 169 
0.122436 -0.641973 0.804092 254 254 254 
0.137256 -0.644011 0.805087 254 254 254 
0.151015 -0.643234 0.801760 253 253 253 
0.164763 -0.642987 0.797130 253 253 253 
0.178059 -0.640934 0.791849 253 253 253 
0.191055 -0.638448 0.783937 254 254 254 
0.204020 -0.636729 0.780656 166 166 166 
0.216907 -0.636165 0.778206 167 168 168 
0.229793 -0.636070 0.775125 167 167 167 
0.245161 -0.636114 0.771879 165 166 166 
0.260320 -0.635773 0.768101 167 169 168 
0.273010 -0.635521 0.764819 171 171 171 
0.285887 -0.634478 0.760868 173 174 173 
0.298915 -0.634277 0.757286 178 178 178 
0.311820 -0.633527 0.753158 180 180 180 
0.324408 -0.632131 0.748073 179 181 180 
0.337246 -0.631439 0.743390 176 177 179 
0.350283 -0.631058 0.738163 175 175 177 
0.363040 -0.630485 0.733352 168 168 170 
0.375652 -0.629750 0.727468 163 163 163 
0.392235 -0.620931 0.703879 147 149 148 
0.392194 -0.551614 0.544030 152 154 153 
0.392755 -0.506060 0.438918 145 147 144 
0.393239 -0.496887 0.417628 145 145 143 
0.397419 -0.432685 0.267501 163 165 162 
0.399992 -0.398242 0.184607 175 177 174 
-0.489820 -0.349947 0.246626 183 183 181 
-0.487299 -0.378018 0.311655 172 172 170 
0.081185 -0.645192 0.826054 151 151 151 
0.094964 -0.643993 0.820342 161 161 161 
0.109404 -0.643499 0.815461 164 165 167 
0.122303 -0.646655 0.821240 254 254 254 
0.137174 -0.648488 0.822524 254 254 254 
0.151132 -0.647544 0.817564 253 253 253 
0.164935 -0.646774 0.813270 253 253 253 
0.178201 -0.644857 0.807095 253 253 253 
0.191530 -0.642304 0.799510 252 252 252 
0.204785 -0.640954 0.797108 169 169 169 
0.217863 -0.640433 0.794408 165 166 168 
0.230732 -0.639755 0.790880 165 168 167 
0.246152 -0.639816 0.787344 165 167 166 
0.258808 -0.639172 0.783855 167 169 168 
0.274212 -0.638902 0.780306 169 169 169 
0.287116 -0.638631 0.776480 174 174 174 
0.300162 -0.637722 0.772405 179 176 177 
0.313339 -0.637018 0.767987 180 180 180 
0.326076 -0.636131 0.763607 178 180 179 
0.338924 -0.634950 0.758014 176 177 179 
0.352206 -0.634514 0.753520 175 176 178 
0.365029 -0.634408 0.748486 170 170 172 
0.377689 -0.633598 0.743037 165 164 166 
0.388934 -0.630512 0.733564 150 152 151 
0.392271 -0.625537 0.720257 145 147 146 
0.392911 -0.599316 0.660735 157 159 158 
0.392238 -0.557220 0.563152 156 156 156 
0.391972 -0.528393 0.495771 149 149 149 
0.392192 -0.515819 0.466975 147 148 148 
0.393953 -0.485896 0.397525 146 146 144 
0.394468 -0.477503 0.377674 146 146 144 
0.395066 -0.467889 0.354718 151 151 149 
0.399164 -0.416505 0.233348 168 168 168 
-0.491106 -0.335559 0.211048 186 186 184 
-0.486850 -0.382812 0.327018 171 171 169 
-0.485274 -0.400866 0.369747 165 167 162 
-0.484046 -0.415270 0.405029 159 162 157 
-0.482643 -0.436980 0.455921 159 159 157 
-0.481737 -0.457982 0.502988 159 159 158 
-0.481142 -0.466996 0.524300 161 162 157 
0.112060 -0.647239 0.831036 163 164 166 
0.153703 -0.650764 0.832443 253 253 253 
0.167846 -0.650581 0.827827 253 253 253 
0.180990 -0.648128 0.821113 254 254 254 
0.194572 -0.645193 0.813197 254 254 254 
0.207930 -0.644650 0.812339 172 172 172 
0.221022 -0.644089 0.809075 166 167 168 
0.234037 -0.643493 0.805834 165 167 166 
0.247103 -0.643451 0.802661 166 168 167 
0.259945 -0.643393 0.799906 166 168 167 
0.272902 -0.643014 0.796625 170 172 171 
0.285712 -0.642196 0.792514 174 174 174 
0.298866 -0.641673 0.788762 179 177 178 
0.312083 -0.640948 0.784268 180 180 180 
0.325168 -0.640191 0.780094 180 180 180 
0.338029 -0.638781 0.774153 175 176 178 
0.351337 -0.638289 0.769792 175 176 178 
0.364373 -0.637757 0.764336 170 170 172 
